0.010730 0.024433 0.001212 
-0.042554 0.021409 0.029859 
-0.001567 0.047687 0.043278 
-0.043183 0.013085 0.009272 
-0.003393 -0.027180 0.000000 
-0.029439 -0.037561 0.011658 
0.020514 0.041170 0.051000 
0.044605 -0.006578 0.037251 
-0.027125 0.039437 0.048805 
-0.039287 -0.027426 0.038845 
-0.029333 -0.037667 0.000444 
0.042970 0.020717 0.046519 
-0.029426 0.037574 0.045695 
-0.039052 -0.003681 0.000397 
0.021809 -0.042314 0.026214 
-0.028493 -0.038507 0.036743 
0.029100 -0.034900 0.033300 
-0.001585 -0.037478 0.000000 
-0.031390 0.010709 0.000795 
0.029736 -0.037264 0.041234 
0.047000 -0.007230 0.030994 
0.031255 0.034855 0.000000 
0.006455 -0.045788 0.051000 
-0.038627 -0.028373 0.013703 
0.001162 -0.045000 0.003820 
0.034965 0.025224 0.000000 
0.046432 -0.011421 0.036741 
-0.024446 0.040777 0.035835 
0.037803 -0.029197 0.047836 
-0.040314 0.025371 0.048636 
0.037959 0.024564 0.000000 
-0.036317 0.005877 0.000549 
0.047223 0.003884 0.044200 
0.026853 -0.039574 0.025009 
0.033235 0.030765 0.004838 
0.041509 -0.016982 0.005567 
-0.021447 0.042532 0.033846 
-0.017130 0.028854 0.000000 
-0.030187 0.004480 0.000000 
0.047000 -0.007389 0.048529 
-0.032671 0.031329 0.050995 
0.012583 -0.031878 0.000710 
-0.016919 -0.041541 0.049489 
-0.039599 -0.021502 0.011150 
0.010930 -0.028096 0.000986 
-0.035990 -0.028010 0.022610 
0.047000 0.006408 0.045138 
0.032534 -0.034466 0.039789 
-0.034926 0.009263 0.000000 
0.013993 -0.043001 0.037880 
0.005524 0.047000 0.035353 
-0.003392 -0.047322 0.028027 
0.011426 -0.043515 0.037521 
0.016807 0.041597 0.010253 
0.002175 0.047565 0.042367 
0.035292 -0.031708 0.040757 
-0.047089 -0.004557 0.020824 
-0.034385 0.029615 0.047368 
0.045000 0.003419 0.030060 
-0.001117 -0.047777 0.002748 
-0.032205 -0.031795 0.028512 
0.004767 -0.030114 0.000000 
0.025685 0.037658 0.042454 
-0.017844 -0.041078 0.038206 
0.021852 0.010311 0.001383 
-0.045000 -0.000281 0.011976 
0.044842 0.005631 0.029432 
0.044296 0.007817 0.006787 
0.007407 -0.013648 0.000000 
-0.007662 0.047000 0.032171 
-0.032688 -0.024974 0.000297 
0.016269 -0.041866 0.010742 
0.026529 -0.039735 0.011579 
-0.039588 -0.026823 0.046580 
0.020456 -0.043127 0.026478 
-0.040266 -0.025467 0.019802 
-0.021241 -0.042655 0.023983 
-0.046893 -0.010267 0.018261 
0.024313 -0.038343 0.007962 
-0.010879 -0.035527 0.000000 
0.047423 -0.000503 0.000000 
-0.043405 0.019992 0.028777 
0.008637 0.047000 0.040977 
0.008904 -0.017112 0.000000 
-0.040636 0.018910 0.003937 
0.005379 -0.047000 0.040006 
-0.046417 0.011458 0.004423 
0.001744 -0.004848 0.002657 
-0.044432 -0.017270 0.014419 
-0.034254 -0.029746 0.042979 
-0.029939 0.037061 0.028935 
-0.016444 -0.041778 0.036753 
0.040868 -0.018331 0.036635 
-0.034379 -0.032621 0.037425 
0.045896 0.000724 0.051000 
0.045194 0.014515 0.034268 
-0.004941 -0.047012 0.031407 
-0.045265 0.014338 0.049101 
-0.001595 -0.046618 0.051000 
0.024999 0.040501 0.010306 
-0.044610 0.006561 0.036898 
0.024523 -0.021317 0.000000 
-0.019471 -0.005129 0.001657 
-0.035466 -0.028534 0.031313 
0.018651 -0.040740 0.046036 
0.023420 -0.040915 0.000000 
0.041614 -0.022977 0.032017 
-0.014312 -0.042844 0.040843 
-0.039721 0.020194 0.000025 
0.006680 -0.029548 0.000000 
-0.044357 0.017573 0.024643 
-0.001839 -0.042900 0.000000 
0.003304 -0.018865 0.000000 
-0.015354 -0.035315 0.000000 
0.042272 0.021880 0.045568 
-0.033331 0.033669 0.039904 
0.021719 -0.042369 0.040537 
0.015929 0.042036 0.039729 
0.044591 0.016636 0.049205 
-0.006524 -0.007682 0.000000 
0.036436 0.021010 0.000209 
0.027939 0.036061 0.014958 
-0.002789 0.045000 0.031666 
-0.006156 0.004979 0.000000 
0.015797 -0.042101 0.008835 
-0.002312 -0.045584 0.051000 
0.028277 0.035723 0.008557 
0.004724 0.043522 0.000000 
-0.003007 0.021195 0.001576 
0.011059 0.046576 0.039322 
-0.037718 -0.009097 0.000410 
0.001296 -0.045000 0.007873 
0.023838 -0.020605 0.000917 
-0.022183 -0.042090 0.038664 
0.012451 -0.046020 0.031570 
-0.016677 0.044581 0.034962 
-0.042162 0.022064 0.034750 
0.025696 -0.007474 0.001219 
-0.005655 -0.028784 0.001041 
-0.027920 0.039040 0.014236 
-0.034326 0.023079 0.000275 
0.013789 0.027204 0.000000 
0.044442 0.007233 0.047759 
-0.045000 -0.004607 0.033365 
0.033503 -0.030497 0.021897 
0.000056 -0.046816 0.000000 
0.001376 -0.047725 0.050231 
-0.034310 0.032690 0.005933 
0.016109 -0.041945 0.021912 
0.027140 0.022618 0.000668 
0.015962 0.044760 0.035885 
-0.043265 0.012673 0.012274 
-0.026921 -0.039539 0.026980 
-0.045000 -0.002327 0.032662 
-0.031890 -0.032110 0.043147 
0.039662 0.026677 0.023308 
-0.003818 0.047236 0.043966 
-0.021501 0.034922 0.000287 
-0.010210 0.012537 0.000000 
-0.017565 -0.039156 0.000126 
0.025485 0.037758 0.005338 
-0.037199 -0.026603 0.012895 
0.006904 0.047000 0.033949 
0.039351 -0.022123 0.016334 
0.039073 0.027854 0.038360 
-0.026262 0.027618 0.000474 
0.007059 -0.023221 0.000000 
0.043562 -0.011188 0.016618 
-0.010814 0.046674 0.036176 
0.004564 0.027491 0.000000 
-0.047819 0.000904 0.013977 
-0.047910 0.000451 0.049953 
0.045117 -0.014707 0.006881 
-0.014683 -0.042658 0.003437 
-0.045000 -0.004182 0.039126 
0.033179 0.030821 0.012875 
0.029459 0.034541 0.012360 
0.007605 0.009655 0.000000 
0.034056 0.032944 0.028697 
-0.045831 -0.012923 0.047726 
0.043302 -0.020163 0.016887 
-0.025611 -0.037694 0.047818 
-0.041545 0.016911 0.018860 
0.019537 0.043678 0.014452 
-0.004081 0.045000 0.043159 
-0.033991 0.033009 0.024394 
-0.031600 -0.032400 0.041353 
-0.006904 0.044524 0.025787 
0.047636 -0.001822 0.001324 
0.021688 0.012790 0.001332 
-0.036248 -0.030752 0.047939 
0.002247 0.045000 0.018809 
-0.006420 0.044645 0.041671 
0.014668 0.042857 0.051000 
-0.046305 0.011738 0.015171 
0.009973 -0.043805 0.019750 
-0.045774 0.004289 0.051000 
0.019143 -0.005834 0.000000 
0.034552 0.029448 0.038515 
-0.043809 -0.009956 0.018888 
-0.031566 0.029770 0.000000 
-0.044018 -0.008928 0.022790 
-0.045717 0.010687 0.000000 
0.041673 0.016655 0.030683 
0.009377 0.043925 0.049172 
-0.044686 -0.016257 0.031948 
0.043793 -0.010034 0.006088 
-0.008044 -0.044239 0.048016 
-0.027549 0.020089 0.000000 
-0.043673 -0.010634 0.017719 
0.017642 0.044339 0.003877 
0.004431 0.047114 0.031995 
-0.003044 -0.001219 0.000000 
0.019616 0.032870 0.000465 
0.045000 0.002644 0.011067 
-0.028648 0.035352 0.042525 
-0.043161 -0.020398 0.045742 
0.027225 -0.036775 0.023967 
0.042450 -0.015100 0.048093 
-0.047532 -0.002338 0.027966 
-0.010139 -0.043772 0.019046 
-0.032443 0.031557 0.030442 
0.012333 0.016687 0.001640 
0.041715 -0.016569 0.037199 
0.008208 -0.044198 0.020311 
-0.021277 -0.040866 0.051000 
-0.037483 -0.026034 0.009228 
0.045102 -0.014746 0.016124 
0.037035 -0.029965 0.039971 
0.042372 -0.015256 0.005847 
0.004786 0.001020 0.002673 
0.000689 -0.008105 0.002460 
0.032878 0.031122 0.011108 
-0.030307 -0.036693 0.031544 
-0.002731 -0.047454 0.028603 
0.008966 -0.044009 0.048361 
0.008034 0.044241 0.005762 
0.016926 0.044518 0.025645 
-0.037414 0.029586 0.017441 
-0.028827 -0.035173 0.000597 
-0.044233 -0.018067 0.016225 
-0.008310 0.013739 0.000000 
-0.008285 0.044675 0.000000 
-0.029370 0.013853 0.000000 
0.000807 -0.045000 0.015851 
0.015916 0.044771 0.008582 
0.018386 0.029206 0.000000 
0.026448 -0.037276 0.029893 
-0.023908 -0.029802 0.000482 
0.045000 -0.004423 0.004212 
-0.020402 -0.043159 0.018210 
0.004958 0.045692 0.051000 
0.023115 0.038943 0.028297 
-0.019328 0.037518 0.000000 
0.022164 0.039334 0.014663 
0.013436 0.034776 0.000000 
0.043874 -0.009628 0.018066 
-0.036517 0.030483 0.045624 
0.013163 -0.043180 0.000000 
-0.035224 -0.028776 0.000500 
0.044290 -0.017839 0.022800 
0.030916 0.033084 0.049820 
0.017932 0.041034 0.047961 
-0.004620 0.047076 0.011204 
-0.008782 -0.047000 0.026214 
-0.044133 -0.018468 0.006943 
-0.031948 0.032052 0.016675 
0.044460 0.017161 0.031810 
-0.023155 0.033500 0.000322 
-0.020297 -0.033823 0.000000 
-0.038273 0.009408 0.000000 
0.028950 0.021686 0.000626 
-0.042926 -0.014148 0.039825 
0.007955 -0.021887 0.000000 
-0.045000 0.000966 0.020165 
0.011625 0.027581 0.000996 
-0.009221 -0.043956 0.037841 
0.035230 -0.028770 0.011603 
-0.027804 0.029714 0.000304 
-0.029356 -0.037644 0.003281 
0.044163 -0.018347 0.048608 
0.045000 -0.004786 0.004775 
-0.040258 -0.025484 0.012258 
0.011311 -0.046476 0.019934 
0.014244 0.042878 0.000325 
0.047873 0.000635 0.022018 
-0.025608 0.037696 0.017625 
-0.027163 0.036837 0.024768 
-0.044539 -0.006846 0.022085 
-0.009169 -0.047000 0.031110 
0.043493 -0.011534 0.022139 
0.018506 0.022807 0.001063 
0.012224 -0.024727 0.001157 
-0.022391 0.041966 0.031321 
-0.000624 -0.035835 0.000000 
-0.042378 -0.012033 0.000067 
-0.029713 -0.037287 0.042491 
0.004878 0.035242 0.000000 
-0.023176 0.041494 0.006660 
-0.029791 0.037209 0.023266 
0.044447 0.017212 0.029268 
0.024184 -0.012220 0.001191 
-0.011971 -0.030966 0.000000 
-0.014032 0.045387 0.002543 
-0.007070 -0.047000 0.024450 
0.014341 0.003067 0.000000 
-0.041082 0.023864 0.001185 
-0.031904 0.035096 0.043954 
-0.041023 -0.000863 0.000265 
0.042366 0.015269 0.001628 
-0.032076 0.031924 0.044674 
-0.018443 -0.040823 0.018871 
-0.033065 -0.024829 0.000286 
-0.040089 -0.020277 0.046924 
0.017510 0.041245 0.023867 
-0.019855 -0.040258 0.002425 
-0.029763 -0.037237 0.004696 
0.038036 0.028964 0.025987 
-0.001425 0.047715 0.009313 
-0.006532 0.032202 0.000805 
-0.019917 -0.000745 0.000000 
-0.008633 -0.047000 0.042673 
-0.044522 -0.006910 0.019576 
0.019693 -0.040323 0.018674 
-0.009035 0.040947 0.000200 
0.047477 0.002615 0.001707 
-0.004875 0.002863 0.002625 
-0.018178 0.044206 0.012439 
0.044923 -0.015309 0.048925 
0.040817 -0.021809 0.000000 
0.040622 -0.024757 0.010448 
-0.008041 -0.017968 0.001681 
-0.020812 -0.020814 0.001049 
-0.013996 0.045402 0.009124 
-0.039378 -0.027245 0.034400 
0.045101 -0.014747 0.046722 
-0.042743 -0.014010 0.000015 
-0.007326 -0.026284 0.001182 
-0.017952 0.015661 0.000000 
0.001354 -0.047729 0.000121 
-0.015486 -0.007540 0.001848 
-0.024189 0.040906 0.043236 
-0.017370 0.021913 0.000000 
0.001067 -0.047787 0.045092 
0.008623 -0.044094 0.020817 
0.036451 0.027549 0.030650 
-0.025339 -0.037830 0.027409 
-0.021288 0.042627 0.037534 
-0.024536 -0.006895 0.001302 
0.040272 -0.019819 0.034556 
0.010042 -0.046983 0.005851 
0.038439 -0.028561 0.022640 
0.043369 0.020051 0.013076 
-0.036119 -0.030881 0.009594 
-0.036165 0.027835 0.037363 
0.005118 0.044970 0.022802 
-0.040943 -0.024114 0.005060 
0.033201 0.030799 0.023690 
-0.038428 0.024144 0.034855 
0.040818 -0.018454 0.005412 
0.006422 -0.047000 0.006893 
-0.017141 0.041429 0.033046 
-0.002353 -0.047529 0.023461 
0.036731 -0.027269 0.018290 
0.005508 -0.011969 0.002118 
0.047121 0.004396 0.011850 
-0.005061 0.038973 0.000390 
-0.009738 -0.047000 0.026746 
-0.024450 -0.038275 0.026850 
-0.038092 0.024815 0.011205 
-0.047000 -0.008343 0.010499 
-0.003615 -0.046242 0.000000 
-0.040712 -0.024576 0.029790 
-0.039289 0.027422 0.004278 
0.014677 0.013272 0.000000 
-0.035433 0.014429 0.000000 
0.037497 0.029503 0.026541 
0.015776 -0.042112 0.005915 
-0.040887 0.018281 0.038507 
0.018689 -0.009344 0.001604 
-0.038154 -0.024693 0.046941 
0.025972 -0.005638 0.000000 
0.003232 0.047354 0.001843 
0.044865 -0.005538 0.025852 
0.030986 0.036014 0.034860 
-0.022953 0.039019 0.043781 
0.021483 0.040437 0.051000 
0.022852 -0.039059 0.008006 
-0.038823 0.023353 0.001113 
-0.024443 -0.038279 0.010546 
0.001731 0.043722 0.000000 
0.031642 -0.035358 0.025311 
0.040571 0.024858 0.044948 
0.035201 0.028799 0.030064 
-0.006489 0.027857 0.001090 
-0.044058 0.008769 0.029731 
-0.040894 -0.018265 0.046856 
-0.003603 -0.046170 0.051000 
0.047389 -0.003056 0.012643 
0.035931 0.031069 0.050285 
-0.011413 -0.011129 0.000000 
0.011360 0.043528 0.004401 
0.025233 0.037883 0.029760 
0.016915 -0.041542 0.007593 
-0.016420 -0.044645 0.038013 
0.038177 0.028823 0.035364 
0.009498 -0.047000 0.042775 
-0.043383 0.012086 0.005993 
-0.027435 -0.039283 0.043676 
-0.024247 -0.038198 0.000011 
0.043432 -0.011842 0.022722 
0.008823 0.033431 0.000000 
-0.018874 -0.044032 0.016062 
-0.044853 0.015588 0.038205 
0.010867 0.046653 0.039049 
0.002048 0.023691 0.000000 
-0.041147 0.010005 0.000174 
-0.015004 0.042498 0.019909 
0.002126 0.045000 0.025395 
-0.031479 0.035521 0.029914 
0.036545 0.027455 0.028663 
0.009957 0.043809 0.023994 
-0.018926 0.044019 0.032938 
-0.018883 -0.029157 0.000707 
0.016751 -0.044562 0.008062 
0.001821 -0.008710 0.000000 
0.018095 0.044226 0.045973 
-0.047405 -0.002975 0.033522 
0.013196 0.035164 0.000494 
0.040325 -0.019687 0.045864 
0.016841 0.033229 0.000000 
0.002910 0.022778 0.000000 
-0.047892 -0.000541 0.022987 
0.034125 0.016614 0.000462 
0.023207 0.041476 0.028491 
-0.005847 0.011519 0.002137 
0.047000 -0.009049 0.012788 
0.004399 -0.006487 0.000000 
0.024297 0.038352 0.020320 
-0.039974 0.026053 0.024233 
0.021300 -0.042620 0.021827 
0.017943 -0.044264 0.043528 
-0.011844 -0.046262 0.024677 
-0.001101 0.045000 0.001315 
0.028916 0.035084 0.010689 
0.016704 0.042916 0.051000 
-0.014067 0.029623 0.000000 
-0.012110 0.016700 0.000000 
0.021667 0.042400 0.049719 
0.031577 -0.035423 0.050666 
0.032973 -0.031027 0.041206 
0.030291 0.036709 0.038049 
-0.045789 0.013027 0.016804 
0.007505 -0.044374 0.009249 
0.045000 -0.003484 0.029734 
0.035040 0.028960 0.009730 
-0.041776 0.020988 0.051000 
0.022309 0.039276 0.030261 
-0.039992 0.020519 0.028798 
0.007118 -0.044470 0.009209 
0.002659 -0.045000 0.030139 
-0.020490 -0.016099 0.000000 
-0.042745 -0.014510 0.022677 
0.034630 0.010310 0.000597 
0.016782 -0.041609 0.045091 
-0.041022 -0.017956 0.018255 
-0.026741 0.014588 0.000000 
0.031946 -0.022458 0.000435 
-0.044729 0.002190 0.000018 
-0.034387 -0.029613 0.035826 
0.017772 -0.044307 0.043696 
-0.044669 -0.006325 0.018362 
0.044966 0.015135 0.029562 
0.003444 0.047311 0.004424 
0.046469 -0.011329 0.014050 
0.017552 0.027993 0.000000 
-0.043836 0.019274 0.034064 
-0.029302 0.015461 0.000791 
-0.045000 -0.003346 0.011300 
0.000595 0.028245 0.000000 
-0.001070 0.032111 0.000000 
0.030329 -0.021102 0.000000 
0.039332 0.022171 0.034083 
0.006406 -0.001226 0.000000 
0.042844 0.014312 0.050837 
-0.026505 -0.037248 0.025511 
0.024369 0.016311 0.000000 
0.031261 -0.027939 0.000225 
-0.044427 -0.017293 0.046005 
0.017957 -0.041021 0.003399 
-0.018172 -0.040637 0.000018 
-0.009889 -0.046044 0.000000 
0.047540 -0.002299 0.049745 
-0.015905 0.031106 0.000668 
0.010454 -0.046818 0.031162 
-0.000488 0.012206 0.002186 
0.011626 -0.043475 0.019527 
0.005880 -0.022281 0.000000 
-0.047823 0.000884 0.049288 
0.035986 -0.028014 0.017471 
-0.011940 -0.004104 0.002160 
-0.009194 0.042830 0.000074 
0.007254 0.044437 0.028073 
0.047261 0.003695 0.023845 
-0.044899 0.005403 0.046188 
0.019718 0.000865 0.000000 
-0.016422 0.030791 0.000000 
0.008385 -0.013743 0.000000 
0.016822 0.041589 0.011345 
-0.027081 -0.039459 0.047866 
-0.014756 -0.045098 0.023373 
0.027455 0.035654 0.000000 
-0.037749 0.025501 0.014346 
0.038359 0.028641 0.005915 
0.029069 -0.005756 0.000000 
0.038078 -0.024844 0.039823 
-0.020883 0.033879 0.000000 
-0.047000 -0.005370 0.029525 
-0.012888 0.043222 0.004551 
0.011670 0.040589 0.000000 
-0.006158 0.047000 0.040175 
-0.039573 0.026853 0.030529 
0.033672 -0.030328 0.042502 
0.010366 0.046854 0.027370 
0.031337 0.025615 0.000330 
-0.008305 -0.047000 0.004024 
-0.007724 -0.044319 0.030309 
0.024028 0.040986 0.012760 
-0.018438 0.040825 0.031361 
0.020438 0.036533 0.000000 
0.044495 -0.007020 0.040009 
-0.013804 -0.009403 0.001901 
-0.032872 -0.031128 0.025346 
0.011303 -0.015087 0.000000 
-0.008589 -0.019518 0.001571 
-0.041119 -0.023682 0.000000 
-0.000931 0.047814 0.019140 
-0.004231 -0.034400 0.000000 
0.041341 -0.017318 0.033384 
-0.007222 -0.047000 0.030543 
0.041198 0.017604 0.010290 
0.037188 0.026625 0.044506 
-0.014295 -0.045282 0.031807 
-0.001030 0.047794 0.026713 
0.041039 -0.017922 0.036494 
0.030255 -0.036745 0.013276 
0.047826 -0.000869 0.007401 
0.044352 -0.010841 0.000000 
0.028416 0.034891 0.000033 
0.043783 0.010083 0.038883 
-0.017971 0.041015 0.030825 
-0.027824 -0.036176 0.050017 
-0.033047 0.033953 0.050702 
0.038036 -0.024927 0.035698 
-0.008265 -0.015822 0.000000 
-0.028195 -0.009900 0.000000 
0.045000 0.000294 0.042443 
-0.006043 0.032280 0.000808 
-0.043318 -0.012410 0.037179 
0.012401 -0.043320 0.020893 
-0.003979 0.013482 0.000000 
0.020695 -0.039922 0.040475 
-0.030436 -0.033240 0.000015 
0.034941 0.032059 0.004878 
0.020418 -0.040033 0.024647 
0.020722 -0.005237 0.001574 
0.043179 0.013103 0.014447 
-0.025207 0.040396 0.005818 
0.037527 0.019792 0.000000 
0.011094 0.046562 0.011861 
0.015650 0.035531 0.000000 
0.038784 -0.023431 0.019517 
0.001208 0.047758 0.034420 
-0.047000 -0.007230 0.014879 
0.046906 -0.010235 0.050823 
0.006194 0.005460 0.002454 
-0.004426 -0.029783 0.000996 
-0.009749 -0.014225 0.000000 
-0.016217 0.006158 0.001842 
0.047582 -0.002088 0.034863 
-0.017215 -0.006102 0.000000 
0.003519 -0.045000 0.038407 
-0.024249 0.038022 0.000000 
-0.022381 0.008298 0.000000 
0.042523 -0.014954 0.021971 
-0.043307 0.012467 0.029379 
-0.039252 0.027496 0.019294 
-0.013308 -0.043138 0.006284 
-0.034882 0.029118 0.010725 
-0.019709 0.038469 0.000000 
0.012256 0.035531 0.000500 
-0.036169 -0.030831 0.049186 
0.008971 0.044007 0.021640 
-0.034217 -0.029783 0.016777 
-0.014911 -0.033834 0.000523 
0.031671 -0.008824 0.000810 
-0.036839 0.027161 0.034845 
0.026262 0.037369 0.030973 
0.013876 -0.043025 0.002062 
-0.025674 -0.037663 0.042395 
-0.004108 -0.045000 0.040445 
0.038928 -0.028072 0.023888 
0.047000 -0.009455 0.026852 
-0.030560 -0.033440 0.029550 
0.047519 0.002404 0.042373 
-0.043474 -0.011632 0.043222 
-0.030256 0.036744 0.029661 
0.000396 -0.002710 0.000000 
-0.003254 0.015767 0.000000 
-0.044500 0.017001 0.004830 
0.011573 -0.043485 0.022824 
-0.024301 -0.029766 0.000000 
0.045000 -0.001708 0.043437 
0.034098 0.029902 0.021591 
-0.018822 -0.032993 0.000000 
-0.004805 -0.018331 0.000000 
-0.004096 -0.023002 0.001442 
-0.000433 -0.047913 0.024391 
-0.045000 -0.004542 0.024321 
0.005468 -0.044883 0.000560 
-0.018424 0.029536 0.000698 
-0.038444 0.024112 0.026181 
0.020104 -0.008629 0.001535 
0.033360 -0.030640 0.039714 
0.025985 -0.040007 0.008085 
-0.005119 -0.029573 0.000999 
0.023656 -0.038672 0.034321 
0.044719 0.006125 0.044489 
0.044155 -0.018379 0.033718 
-0.034936 0.007854 0.000000 
-0.035347 -0.031653 0.012083 
0.041779 0.016442 0.039234 
-0.027076 0.036924 0.019096 
-0.024576 -0.040712 0.046392 
0.030553 0.033447 0.037982 
-0.000278 0.045000 0.046464 
0.043631 0.010844 0.016875 
-0.043307 -0.012466 0.011724 
-0.033314 -0.026048 0.000000 
-0.027267 0.036733 0.020596 
-0.007038 0.033348 0.000000 
0.021649 -0.042411 0.010650 
-0.044641 -0.016434 0.043207 
0.033646 -0.033354 0.037010 
-0.025774 0.040113 0.018672 
0.043405 -0.011973 0.038999 
-0.037190 0.029810 0.015879 
-0.037537 0.025925 0.016209 
-0.016645 0.043188 0.000000 
-0.045000 0.000391 0.009589 
0.020754 -0.007268 0.001537 
-0.022342 0.003210 0.000000 
0.015213 -0.001803 0.001984 
-0.039621 -0.021448 0.050930 
-0.043126 0.020457 0.011539 
-0.007889 0.044278 0.004506 
0.008404 -0.046227 0.051000 
-0.047723 0.001387 0.046478 
0.017353 -0.041323 0.036679 
0.025387 -0.037806 0.023209 
-0.014695 0.045122 0.036744 
0.025275 -0.037863 0.036536 
0.032417 0.009830 0.000000 
-0.032448 -0.034552 0.020821 
0.017426 -0.044393 0.002697 
-0.018840 0.040664 0.016480 
-0.038232 0.028768 0.040412 
-0.033170 0.033830 0.013068 
0.028534 0.038466 0.034245 
0.032523 -0.029774 0.000080 
0.017668 0.041166 0.003296 
0.039834 0.017458 0.000000 
-0.002239 -0.025671 0.000000 
0.042011 -0.016454 0.000000 
0.013025 -0.043195 0.038832 
0.037469 0.029531 0.007279 
0.035885 -0.028115 0.008224 
-0.007808 0.024027 0.000000 
-0.037467 0.015509 0.000287 
0.001254 0.026075 0.001262 
0.015912 0.039586 0.000147 
0.042583 0.008530 0.000100 
-0.002065 -0.023161 0.001456 
0.011887 0.030708 0.000000 
-0.032491 0.031509 0.045218 
-0.044182 0.008272 0.041956 
-0.004014 0.023458 0.001413 
-0.040639 0.018903 0.019201 
-0.011140 -0.033320 0.000000 
-0.031697 0.032303 0.029565 
-0.006952 -0.017330 0.000000 
0.038023 0.006025 0.000000 
-0.006680 -0.044580 0.003240 
0.031837 -0.035163 0.032225 
0.005449 0.047000 0.030792 
-0.014688 -0.014281 0.000000 
-0.006003 -0.044749 0.025818 
0.043312 -0.020147 0.036568 
0.027055 -0.039473 0.010202 
0.034501 -0.029499 0.009376 
-0.032330 0.034670 0.031219 
0.044912 -0.005350 0.000294 
0.044464 0.007145 0.016248 
0.043885 0.009573 0.034626 
-0.025386 -0.037807 0.048263 
0.029747 0.024408 0.000461 
-0.030875 0.036125 0.039179 
0.006082 0.047000 0.024919 
-0.042117 0.015766 0.044311 
-0.044605 0.006582 0.000230 
0.040175 0.020062 0.028053 
0.041318 -0.017364 0.001843 
0.034347 0.029653 0.046784 
0.036217 -0.030783 0.034110 
0.047229 -0.003856 0.033077 
0.028358 -0.008707 0.001028 
-0.007010 -0.022582 0.001429 
0.011493 0.018492 0.000000 
0.008562 -0.047000 0.017291 
0.009357 -0.001425 0.000000 
0.018430 -0.044143 0.002418 
0.044916 0.015337 0.037901 
-0.040466 -0.019334 0.005214 
-0.019558 -0.040377 0.008650 
0.018524 -0.040790 0.008872 
-0.035379 -0.031621 0.045886 
-0.016373 0.044586 0.051000 
0.013818 0.043036 0.024026 
0.045000 0.002980 0.036635 
-0.031876 -0.035124 0.026549 
0.025370 -0.037815 0.040590 
-0.012403 0.043319 0.035906 
0.044390 -0.007439 0.011892 
0.007244 0.044439 0.039579 
0.009024 -0.043995 0.027048 
-0.029287 0.034713 0.017301 
-0.020719 0.039912 0.001372 
-0.027579 0.039211 0.015203 
-0.037905 0.016537 0.000230 
-0.037524 -0.025952 0.045108 
-0.044774 -0.015905 0.025059 
0.042643 0.014714 0.027683 
-0.033027 0.009149 0.000717 
-0.038769 0.028231 0.050314 
0.008309 0.039659 0.000000 
0.010408 -0.023478 0.000000 
-0.037860 0.025281 0.028606 
0.028269 0.035731 0.018220 
0.027004 0.036996 0.039232 
0.044761 -0.015956 0.028183 
-0.043455 -0.011725 0.038457 
0.000734 -0.047438 0.000000 
0.045263 -0.014342 0.043794 
-0.012914 0.034818 0.000000 
-0.039873 -0.020817 0.040446 
0.031653 0.035347 0.049085 
-0.047892 0.000539 0.048029 
0.021822 -0.042307 0.008077 
-0.039766 -0.021086 0.007232 
-0.012705 0.036982 0.000400 
0.013818 -0.043036 0.038332 
0.046036 0.012409 0.013338 
-0.018784 -0.044054 0.042212 
0.042080 -0.015841 0.035602 
-0.009906 -0.025459 0.001175 
0.040067 0.025865 0.032606 
-0.023540 0.038730 0.039899 
-0.021548 -0.042471 0.036497 
0.029873 -0.009491 0.000000 
0.031537 0.035463 0.007649 
-0.044607 0.016572 0.000706 
-0.029467 -0.037533 0.000638 
-0.042128 -0.022120 0.015022 
-0.031462 0.035538 0.047816 
-0.009997 0.047000 0.018967 
0.045000 0.004890 0.045647 
-0.043813 0.001161 0.000079 
0.028513 -0.006165 0.000000 
0.011276 0.043545 0.017564 
0.011844 0.040350 0.000000 
-0.007083 0.047000 0.049203 
-0.007094 0.047000 0.010731 
0.038008 0.028992 0.009839 
0.041135 0.017730 0.009762 
-0.034062 -0.001431 0.000729 
-0.003551 0.045000 0.002213 
0.045000 -0.003459 0.019554 
0.045000 0.004589 0.018636 
-0.045000 0.000669 0.045581 
-0.033638 -0.030362 0.041010 
-0.033167 -0.033833 0.027133 
0.018882 0.040647 0.018857 
-0.037491 -0.026018 0.049514 
-0.008479 0.018104 0.000000 
-0.041505 -0.018127 0.051000 
-0.023921 0.038539 0.019129 
0.026954 -0.039523 0.026411 
-0.033836 0.030164 0.045485 
-0.009754 0.047000 0.001865 
0.047000 0.009622 0.034658 
-0.006663 -0.044584 0.008061 
-0.021373 0.039651 0.024578 
-0.039151 0.027697 0.027183 
0.004303 -0.036218 0.000581 
-0.033182 0.032787 0.051000 
0.006542 0.019541 0.001631 
0.022659 0.039136 0.017806 
-0.000998 0.007691 0.002485 
0.040771 -0.024458 0.021774 
0.010315 0.045018 0.000000 
0.042883 0.020861 0.031933 
-0.018933 -0.044017 0.043661 
0.029988 0.034012 0.030695 
-0.015527 -0.000161 0.000000 
0.015414 0.018266 0.001421 
0.004271 0.017988 0.000000 
-0.033829 -0.033171 0.003285 
-0.022103 -0.042138 0.009760 
-0.042811 -0.014379 0.050452 
-0.028922 0.038078 0.001041 
-0.029496 0.037504 0.019989 
-0.045000 -0.000423 0.035334 
0.019880 0.043472 0.016137 
-0.019131 0.040548 0.014962 
0.026463 -0.028550 0.000421 
0.024458 -0.003635 0.001355 
-0.035071 -0.028929 0.009626 
-0.020346 0.019278 0.001143 
-0.002080 -0.047584 0.043198 
-0.019115 -0.023159 0.001018 
-0.018233 0.019291 0.000000 
0.003080 0.047384 0.027469 
0.013658 0.045537 0.014110 
-0.044433 0.007268 0.000997 
-0.016737 0.008705 0.000000 
0.043979 -0.009104 0.049433 
-0.047851 -0.000743 0.046181 
0.016126 -0.041937 0.031179 
-0.006774 -0.032819 0.000762 
0.035529 0.028471 0.020885 
0.039001 0.022998 0.014456 
0.039373 -0.022067 0.010594 
0.001064 -0.047787 0.050670 
-0.029793 0.037207 0.033030 
-0.038141 -0.024718 0.016216 
-0.045000 0.004039 0.023292 
0.027178 -0.007319 0.001124 
-0.012720 0.021576 0.001340 
-0.042735 0.021109 0.031655 
0.016406 0.041797 0.048861 
0.045000 -0.002268 0.040868 
-0.014910 0.025557 0.000000 
0.038593 -0.023814 0.044501 
-0.035215 -0.000628 0.000652 
-0.041868 0.004112 0.000209 
0.027202 -0.006655 0.000000 
-0.029194 0.034806 0.034427 
-0.040929 0.018177 0.020532 
0.038721 -0.028279 0.037988 
0.014907 0.042547 0.050188 
-0.038129 0.028871 0.044391 
-0.044215 -0.018140 0.006885 
0.045000 0.000963 0.026532 
0.003949 0.003871 0.002633 
-0.006068 0.041847 0.000187 
-0.023403 -0.041358 0.042759 
0.021070 -0.010235 0.001434 
0.047400 0.002999 0.050966 
-0.036146 -0.030854 0.032874 
0.040570 -0.024860 0.029134 
-0.039511 0.026978 0.033325 
-0.026775 0.039612 0.039290 
-0.029182 -0.037818 0.047742 
-0.033848 -0.030152 0.028579 
-0.045000 -0.001324 0.008832 
0.037623 0.025754 0.016184 
-0.038137 0.024725 0.002121 
-0.010520 0.007967 0.002133 
0.027730 -0.039135 0.002333 
-0.043399 0.012006 0.008851 
0.043527 -0.011366 0.002383 
-0.020702 0.013310 0.001375 
-0.043953 -0.009233 0.037230 
-0.015867 0.011970 0.000000 
-0.047170 -0.004150 0.013918 
-0.041262 0.023564 0.020530 
0.022318 0.039273 0.000077 
0.007932 -0.044267 0.000449 
0.044204 0.008185 0.021791 
-0.021192 0.039723 0.016531 
0.038009 0.024982 0.013033 
0.016922 0.008644 0.000000 
-0.045801 -0.012997 0.023908 
-0.032395 0.027991 0.000169 
-0.043821 0.009893 0.010179 
-0.010169 0.026169 0.001125 
-0.033382 -0.030618 0.029812 
0.017137 -0.016868 0.001406 
0.022712 -0.041773 0.032335 
-0.044784 0.005866 0.042194 
0.040141 -0.020147 0.030127 
0.041229 0.017541 0.035070 
0.004249 -0.047150 0.020321 
-0.045994 0.012515 0.006085 
-0.040721 -0.018697 0.022895 
0.043480 0.011599 0.028874 
0.023521 -0.013268 0.001206 
0.044672 -0.006311 0.021317 
0.042187 0.015626 0.025410 
0.009024 0.043995 0.028860 
-0.036441 -0.027559 0.001630 
-0.010335 -0.046866 0.015976 
0.042256 -0.015488 0.005677 
0.034494 0.032506 0.000638 
-0.002073 0.027483 0.001168 
-0.020268 0.014234 0.000000 
-0.016571 0.041714 0.000990 
-0.036636 0.027364 0.006831 
-0.026146 0.006176 0.001206 
-0.032973 -0.007102 0.000000 
-0.008081 0.022567 0.000000 
0.011141 0.001352 0.002255 
0.010775 -0.043645 0.014720 
-0.004466 0.045000 0.025939 
0.016528 -0.041736 0.020926 
0.039257 -0.023908 0.051000 
-0.040514 0.024972 0.041999 
-0.041979 -0.016041 0.049658 
-0.043802 -0.014281 0.051000 
0.007791 0.027180 0.001118 
0.028072 -0.038928 0.029914 
-0.045805 0.006405 0.051000 
0.010867 0.043627 0.001648 
0.021946 0.039422 0.040487 
0.042306 -0.015387 0.038009 
0.000438 -0.001667 0.000000 
-0.021902 -0.042259 0.040881 
0.030152 -0.033848 0.017140 
-0.038400 0.024200 0.002357 
-0.020523 -0.039991 0.050047 
-0.003795 -0.045000 0.000968 
0.043714 0.010429 0.023450 
0.019961 -0.017841 0.001228 
-0.034758 -0.029242 0.039387 
0.033745 0.030255 0.006268 
0.015567 0.042216 0.016840 
-0.041254 0.017493 0.005246 
0.009186 -0.047000 0.007558 
-0.029971 -0.037029 0.039350 
-0.016050 -0.041975 0.003374 
0.012623 -0.043275 0.015314 
-0.044870 0.015520 0.044883 
0.002222 0.045000 0.034189 
-0.044475 0.007101 0.020232 
0.001084 0.030536 0.000964 
0.007365 -0.047000 0.023030 
-0.009243 0.047000 0.031611 
0.037135 -0.029865 0.016050 
0.032717 0.031283 0.050748 
-0.001409 -0.045000 0.011745 
0.035803 -0.005705 0.000585 
0.007786 -0.018199 0.001674 
-0.033655 0.033345 0.014004 
0.041226 -0.023623 0.024795 
-0.041716 0.016568 0.002540 
0.004668 -0.021587 0.000000 
0.024975 -0.040513 0.040430 
0.037972 -0.025055 0.009924 
0.037278 -0.026445 0.028663 
0.003086 0.030127 0.000992 
0.003893 -0.023458 0.000000 
0.040502 0.024996 0.048885 
0.045758 0.013104 0.042367 
0.037666 0.029334 0.015300 
-0.007650 -0.044338 0.030772 
-0.045000 -0.000378 0.025847 
0.023316 -0.038842 0.036772 
0.027945 0.039028 0.008603 
0.040772 0.018569 0.006855 
-0.005352 0.047000 0.000618 
-0.008045 -0.018096 0.001673 
-0.020306 0.040077 0.046519 
0.039458 -0.027084 0.039152 
-0.004317 -0.017732 0.001782 
0.032136 0.031864 0.004819 
0.007459 0.044385 0.032087 
-0.026609 0.035013 0.000000 
-0.031705 -0.035295 0.007779 
-0.006966 -0.047000 0.034426 
0.024596 -0.038202 0.018505 
0.044651 0.016395 0.016103 
-0.000280 0.007065 0.002529 
-0.004374 0.024862 0.000000 
0.043719 -0.010406 0.029931 
-0.022438 -0.029238 0.000578 
0.039488 -0.021781 0.035829 
-0.032975 0.031025 0.040156 
0.032559 0.034441 0.046645 
-0.021082 0.039767 0.016635 
-0.004645 -0.045000 0.040605 
0.001544 0.047691 0.000036 
-0.022635 0.041819 0.034368 
0.022209 0.039316 0.018465 
0.041505 0.016990 0.003753 
0.044793 -0.015828 0.005058 
-0.041659 0.016682 0.038574 
-0.027053 0.039474 0.050011 
-0.036252 0.017893 0.000000 
-0.002090 0.013345 0.002100 
-0.012153 0.005493 0.002107 
0.015769 0.042115 0.010940 
-0.028533 0.027047 0.000000 
0.000082 -0.045000 0.008231 
0.026551 -0.026437 0.000516 
0.029142 -0.034858 0.050356 
-0.037612 -0.025777 0.010391 
0.032761 -0.022064 0.000000 
0.033202 0.033798 0.003314 
0.030262 0.017807 0.000000 
-0.008017 -0.011706 0.002066 
0.001774 -0.005057 0.002643 
-0.045000 0.002351 0.013286 
0.015091 -0.042454 0.001916 
-0.002004 -0.047599 0.024258 
0.002890 -0.047422 0.039209 
-0.014381 -0.045248 0.021163 
-0.026707 0.037147 0.022348 
-0.026134 0.037433 0.047911 
-0.008044 -0.044239 0.035025 
0.047000 0.005328 0.033399 
-0.044110 -0.008560 0.013178 
0.015215 -0.005303 0.001928 
0.031695 -0.003492 0.000000 
0.041784 -0.022693 0.016638 
-0.009865 0.047000 0.045133 
-0.005382 0.047000 0.035233 
0.040333 0.025334 0.023181 
0.027530 0.036470 0.015920 
0.043799 0.010007 0.006663 
0.020916 0.039834 0.025482 
-0.019842 0.003786 0.001652 
0.026605 -0.037198 0.040647 
0.016277 -0.041861 0.020472 
0.043999 -0.009006 0.049425 
0.029481 -0.034519 0.044325 
-0.019160 0.043904 0.043182 
-0.024984 -0.040508 0.026877 
0.025730 -0.037635 0.003178 
-0.038245 0.028755 0.007192 
0.038189 -0.028811 0.011394 
-0.034956 -0.029044 0.023577 
0.014501 -0.042749 0.005816 
-0.015815 -0.044796 0.035763 
0.000878 -0.005308 0.002641 
-0.018346 -0.040861 0.018642 
-0.007597 -0.047000 0.040233 
0.006591 -0.005289 0.002443 
-0.047000 -0.005345 0.012426 
-0.047000 0.006659 0.039423 
-0.000007 0.045000 0.035608 
-0.035258 0.031742 0.010291 
-0.010369 -0.040293 0.000225 
-0.006010 0.044076 0.000000 
-0.021468 -0.039613 0.005996 
-0.023233 -0.006907 0.000000 
0.045449 -0.013877 0.049179 
-0.004347 -0.009635 0.000000 
0.004291 -0.047142 0.016605 
-0.015373 0.042313 0.039344 
-0.041619 0.022968 0.038481 
0.034502 0.017211 0.000000 
0.024919 0.040541 0.025657 
-0.040507 0.024985 0.006911 
0.022798 0.039081 0.037151 
-0.043286 -0.020190 0.032882 
0.037961 0.025077 0.013027 
-0.024867 -0.038066 0.033619 
0.042533 0.014934 0.013655 
0.045333 -0.014167 0.021253 
0.030553 0.027475 0.000280 
0.047701 -0.001497 0.002758 
0.022383 -0.039247 0.046921 
0.008179 0.047000 0.006943 
-0.036674 0.027326 0.031133 
0.004464 0.047107 0.038662 
-0.034045 0.029955 0.011902 
0.030754 0.033246 0.030643 
0.007139 -0.047000 0.026304 
-0.010356 -0.044540 0.000000 
0.032007 0.031993 0.038693 
-0.041751 -0.016498 0.004991 
-0.015906 -0.042047 0.004218 
-0.021451 0.042530 0.020127 
0.035362 0.004740 0.000629 
0.004444 0.042881 0.000000 
-0.016443 0.009197 0.000000 
-0.031448 -0.035552 0.014427 
-0.036897 0.030103 0.042423 
-0.041993 -0.017554 0.051000 
0.014015 0.045394 0.015054 
0.003134 0.045000 0.016332 
0.014338 -0.045265 0.013962 
0.025869 0.037565 0.043035 
-0.016199 -0.044700 0.050966 
0.004175 0.045000 0.028125 
0.037137 -0.026727 0.006584 
0.035838 0.031162 0.048845 
0.021311 0.037509 0.000135 
-0.039037 0.027925 0.009430 
-0.016135 0.013773 0.001598 
0.009763 -0.001649 0.002340 
0.047089 0.004554 0.016100 
-0.000868 -0.039895 0.000000 
0.027763 -0.036237 0.020083 
0.025911 -0.037545 0.002953 
0.044977 -0.005093 0.000552 
0.037980 0.025040 0.025591 
-0.035039 -0.028961 0.047684 
0.033826 0.030174 0.003989 
-0.043614 0.019644 0.003558 
-0.020764 -0.038557 0.000000 
0.013593 -0.020292 0.000000 
0.008693 0.044077 0.028378 
-0.045000 -0.002133 0.026762 
0.019594 -0.035273 0.000317 
-0.017290 0.022346 0.001142 
-0.033780 0.020562 0.000383 
-0.026575 0.037212 0.037948 
-0.038347 -0.003997 0.000000 
0.015553 0.040810 0.000085 
-0.046089 -0.012277 0.002269 
0.009574 -0.043885 0.012218 
0.025881 0.027399 0.000000 
0.001713 0.047657 0.046683 
-0.042468 0.015065 0.023656 
-0.027139 0.039430 0.042827 
-0.021908 -0.039437 0.007822 
-0.022194 0.039322 0.050218 
-0.016156 0.018755 0.000000 
0.003250 0.016795 0.001858 
0.027697 0.014096 0.000000 
-0.044168 -0.008327 0.030871 
-0.026634 0.004733 0.000000 
0.045000 0.003973 0.041132 
-0.026875 -0.037062 0.026957 
-0.016595 -0.044601 0.014039 
-0.000840 0.045000 0.026410 
0.014075 0.040425 0.000152 
0.010181 -0.046927 0.017693 
0.016619 0.044595 0.036109 
0.017425 -0.041287 0.041203 
0.000658 0.009668 0.002355 
0.040860 -0.011159 0.000177 
0.044712 -0.016152 0.023722 
-0.046385 -0.011537 0.030973 
-0.043965 -0.019059 0.016325 
-0.012786 -0.045885 0.000483 
-0.005487 0.044878 0.022513 
-0.047740 -0.001302 0.018294 
0.019442 0.043735 0.028226 
-0.009460 0.043908 0.020245 
-0.047051 0.004742 0.003612 
-0.034792 -0.022441 0.000000 
-0.020671 -0.000136 0.000000 
-0.047000 0.006677 0.049067 
0.013939 0.045425 0.001553 
-0.041431 -0.023281 0.013409 
0.026792 -0.037104 0.021711 
0.018324 0.023401 0.000000 
-0.021638 -0.012157 0.000000 
-0.043905 -0.017663 0.051000 
-0.045000 -0.004666 0.006998 
0.020695 -0.039922 0.015725 
-0.028183 -0.035817 0.027087 
-0.036575 0.027425 0.034697 
-0.035812 -0.031188 0.041326 
0.019535 0.038576 0.000000 
-0.020843 -0.042894 0.050712 
0.043590 0.011049 0.018447 
-0.043797 0.010016 0.031841 
-0.030510 0.033490 0.002897 
0.024985 -0.035113 0.000172 
-0.020414 -0.007612 0.000000 
0.041134 -0.017732 0.038094 
-0.045000 -0.000595 0.040700 
-0.044160 0.008358 0.048579 
0.040862 -0.018344 0.014530 
-0.028659 -0.038341 0.021812 
0.029654 -0.037346 0.014444 
-0.041097 0.015594 0.000066 
0.019750 -0.037948 0.000146 
0.002363 -0.007884 0.002453 
0.039826 0.020935 0.004269 
0.041607 -0.007254 0.000184 
0.028091 0.038909 0.035902 
-0.001615 0.026926 0.000000 
0.004439 -0.045000 0.046428 
-0.010435 0.043713 0.005161 
0.012149 -0.021459 0.000000 
-0.025999 0.035619 0.000112 
-0.034009 -0.029991 0.020767 
0.019289 -0.043826 0.013297 
-0.029558 -0.021445 0.000607 
0.007183 0.014585 0.000000 
-0.043245 -0.016641 0.000000 
0.032773 0.031227 0.000415 
0.019690 -0.040324 0.038752 
-0.002045 0.045000 0.017364 
-0.012523 0.008045 0.000000 
0.006805 0.000376 0.000000 
0.047384 -0.003078 0.000815 
-0.035232 -0.028768 0.039929 
-0.013772 -0.045491 0.040557 
0.041552 0.018436 0.000000 
0.043639 -0.019602 0.049118 
-0.020752 0.005114 0.000000 
0.034146 0.026720 0.000000 
0.005293 0.044927 0.027659 
0.044437 -0.017250 0.021998 
-0.035062 -0.002340 0.000663 
-0.004400 -0.045000 0.037778 
0.043654 0.019577 0.025597 
0.032077 -0.031923 0.026141 
-0.046358 -0.011604 0.046637 
-0.047933 0.000337 0.034421 
0.009068 0.040394 0.000235 
0.047000 -0.005692 0.011278 
-0.039243 -0.022393 0.050704 
0.011921 0.035730 0.000499 
-0.007963 -0.047000 0.000688 
0.007783 0.001559 0.000000 
-0.013539 -0.043092 0.005283 
0.041964 0.016071 0.044496 
0.047000 -0.007338 0.007919 
-0.013096 -0.043181 0.029994 
0.043121 -0.013395 0.036975 
0.001963 0.042920 0.000139 
0.018098 -0.040961 0.028895 
0.039266 0.026864 0.000000 
0.024345 0.040828 0.046087 
0.041782 0.016435 0.037882 
0.014243 0.005081 0.001993 
0.042929 -0.014142 0.030126 
0.003846 0.015852 0.001911 
0.025991 0.008415 0.001187 
-0.028995 0.035005 0.024245 
-0.008856 -0.025006 0.000000 
0.015458 -0.044886 0.033019 
-0.041813 0.016374 0.048467 
0.026936 -0.037032 0.017769 
0.022566 0.041860 0.047676 
0.031441 0.035559 0.013085 
0.006240 -0.047000 0.003646 
-0.047000 -0.009522 0.012947 
0.019713 0.043572 0.017784 
0.026954 -0.038044 0.000000 
-0.003672 -0.003063 0.002684 
-0.016229 0.041885 0.008379 
-0.006583 0.044604 0.028272 
0.040408 -0.019481 0.018001 
0.012458 0.044337 0.051000 
-0.032856 0.031144 0.005741 
0.038579 -0.023842 0.020362 
-0.024112 0.020996 0.000886 
-0.044283 -0.017867 0.026008 
-0.017001 -0.041499 0.024972 
0.041192 0.017617 0.003503 
-0.045000 0.003579 0.028960 
0.041778 0.001137 0.000215 
-0.047819 0.000904 0.045215 
-0.043646 -0.019590 0.034229 
-0.008738 0.011275 0.002062 
-0.041421 -0.023298 0.009625 
0.044601 -0.016594 0.045857 
-0.035989 -0.015312 0.000381 
0.042456 -0.008179 0.000113 
0.047000 0.008830 0.048133 
-0.033041 -0.023792 0.000330 
-0.015156 -0.042422 0.012962 
-0.044898 0.005406 0.007366 
0.044343 0.007629 0.044061 
-0.008729 -0.044068 0.017493 
-0.041433 0.017134 0.041357 
-0.014777 0.007003 0.001906 
0.045000 -0.002787 0.014208 
0.025010 -0.037995 0.021471 
0.036438 0.030562 0.013641 
0.023028 -0.005050 0.000000 
0.035501 0.028499 0.011328 
-0.019343 0.043794 0.036345 
-0.038930 -0.008259 0.000342 
0.011929 0.046229 0.035580 
0.045315 -0.014211 0.018432 
-0.016975 -0.033426 0.000497 
0.007128 0.044468 0.005035 
-0.024743 -0.040628 0.000377 
-0.018445 0.023387 0.000000 
-0.047000 0.007017 0.007973 
0.006156 0.047000 0.042026 
-0.026013 -0.013306 0.001050 
0.005422 0.002182 0.002609 
-0.042583 0.014834 0.030635 
-0.018260 -0.040896 0.012425 
0.027673 -0.021323 0.000000 
0.029900 0.021394 0.000000 
-0.041793 0.016413 0.024243 
-0.001596 -0.016129 0.000000 
0.023556 0.041266 0.031612 
-0.035364 0.026855 0.000000 
0.004481 0.047104 0.049487 
-0.028415 -0.022363 0.000000 
-0.026325 0.039837 0.049768 
0.045889 0.012777 0.017405 
-0.011693 0.043461 0.044345 
0.017152 -0.044462 0.015377 
-0.021472 0.039611 0.000449 
0.042572 0.021380 0.020448 
0.031891 0.032109 0.013580 
-0.038753 -0.028247 0.025793 
0.044318 0.007727 0.008951 
0.004228 0.045000 0.041064 
-0.011028 -0.043594 0.040046 
-0.015007 0.024481 0.001100 
0.022487 0.030926 0.000495 
-0.042687 0.014627 0.016525 
0.041043 0.023928 0.026959 
0.009958 -0.043808 0.038189 
-0.009167 -0.022107 0.001399 
-0.013706 -0.030141 0.000000 
0.028200 0.038800 0.039262 
0.039874 0.020814 0.021543 
0.011007 -0.043599 0.043472 
0.042591 -0.021348 0.033817 
0.039496 -0.021759 0.047123 
0.023023 0.031688 0.000434 
-0.005348 0.009455 0.002278 
-0.045000 0.002278 0.039751 
0.006346 0.044663 0.006171 
-0.016478 -0.041761 0.024270 
0.018130 0.040948 0.041214 
0.040921 0.018198 0.045057 
0.035967 0.017156 0.000000 
-0.047000 0.007347 0.007578 
0.008102 0.022216 0.000000 
-0.043624 0.019627 0.022593 
-0.000867 -0.047827 0.035555 
-0.038206 0.024588 0.049242 
-0.047000 0.006149 0.044105 
0.039116 0.027768 0.024672 
0.027511 0.020877 0.000000 
0.022511 -0.024839 0.000780 
0.014239 0.045304 0.026876 
0.038926 -0.017475 0.000000 
-0.040614 0.018964 0.003538 
0.044688 -0.016247 0.049314 
-0.000740 0.041356 0.000000 
-0.007320 -0.044420 0.048332 
-0.047000 -0.005441 0.030480 
-0.028621 0.038379 0.016527 
0.022344 0.039262 0.003330 
-0.028158 -0.002066 0.000000 
-0.040500 -0.019251 0.013096 
-0.012530 0.039294 0.000000 
0.022101 -0.022393 0.000000 
-0.017769 -0.007654 0.000000 
-0.018355 0.040858 0.025879 
0.024815 0.024841 0.000000 
-0.023556 -0.010069 0.000000 
0.032613 0.031387 0.014764 
0.028340 -0.038660 0.020329 
0.020070 0.043358 0.043571 
0.017145 0.044464 0.044708 
-0.027071 0.036929 0.027205 
0.020290 0.040084 0.018036 
-0.018519 0.044120 0.036627 
0.031241 -0.032759 0.009445 
0.020136 0.015741 0.000000 
0.037634 -0.016467 0.000000 
-0.045000 -0.003226 0.014188 
-0.045000 -0.001020 0.023283 
-0.010929 0.038428 0.000000 
-0.038697 -0.023607 0.021861 
0.032378 0.031622 0.018937 
0.006016 0.044746 0.030177 
-0.004608 -0.045000 0.002352 
0.041633 0.022944 0.043792 
0.013659 -0.043068 0.005937 
-0.016031 -0.008848 0.001782 
0.038798 0.015429 0.000209 
-0.017045 -0.041477 0.027083 
0.032758 -0.013991 0.000615 
0.047108 0.004462 0.019402 
-0.021511 -0.042494 0.012608 
0.021773 0.017909 0.001140 
0.046537 -0.009365 0.000000 
-0.047000 -0.005717 0.016070 
0.043518 -0.019804 0.013685 
0.044674 0.006303 0.010974 
0.032175 -0.031825 0.039958 
0.025295 -0.037853 0.042290 
-0.031522 -0.007617 0.000000 
0.047000 0.009910 0.032298 
0.044059 -0.013409 0.000000 
-0.039824 0.026352 0.016443 
-0.023130 0.041522 0.014863 
0.000979 0.010590 0.000000 
0.028865 0.035135 0.022564 
0.009076 -0.042533 0.000000 
0.003525 -0.019776 0.001660 
0.046858 0.000679 0.051000 
-0.003540 0.047292 0.037984 
0.040695 -0.018761 0.007889 
0.002555 0.025775 0.000000 
0.007819 0.044295 0.003581 
0.023368 0.013595 0.000000 
0.031743 0.032257 0.034329 
0.002812 -0.044723 0.000018 
-0.020044 0.028176 0.000000 
0.047854 -0.000729 0.044263 
-0.000661 0.047868 0.047057 
0.037907 0.025186 0.035536 
0.020397 0.011853 0.000000 
-0.045000 0.004240 0.027487 
0.007070 0.003210 0.002480 
0.028232 -0.038768 0.023240 
-0.044541 0.010636 0.051000 
0.047000 -0.007130 0.025781 
-0.042139 -0.022102 0.041144 
-0.037837 -0.029163 0.042470 
-0.043411 -0.011947 0.044919 
0.037979 0.029021 0.042283 
0.045000 -0.003737 0.028150 
0.040573 0.019066 0.045654 
0.024604 -0.034191 0.000238 
-0.045000 0.001525 0.012895 
-0.032434 -0.031566 0.024208 
0.040561 -0.019098 0.037113 
0.007361 0.029181 0.000000 
-0.037927 -0.029073 0.014639 
-0.004918 -0.047016 0.008629 
-0.014004 -0.042998 0.032128 
0.022463 0.041922 0.024913 
0.045000 0.000799 0.047645 
-0.018210 -0.031066 0.000613 
-0.022925 -0.012611 0.000000 
0.012057 0.005435 0.002114 
-0.017876 0.041062 0.008831 
0.047000 0.009159 0.043999 
0.016644 0.013314 0.001596 
-0.016904 0.041548 0.009507 
-0.006844 0.047000 0.050891 
0.047305 -0.003473 0.019366 
0.027454 0.024369 0.000000 
-0.024992 -0.032300 0.000314 
0.031877 0.032123 0.045833 
-0.047000 -0.007988 0.008622 
-0.021723 -0.012593 0.000000 
-0.004868 0.016586 0.001850 
0.005021 -0.038573 0.000417 
-0.014382 0.045247 0.050333 
-0.043916 0.009420 0.045059 
-0.047628 -0.001862 0.009376 
-0.029111 0.037889 0.046694 
0.035418 -0.007268 0.000585 
-0.043439 -0.007937 0.000000 
-0.006790 -0.047000 0.010414 
0.014358 0.045257 0.024422 
0.044485 0.017060 0.029958 
-0.011501 0.005906 0.002137 
0.026334 0.037333 0.032650 
0.041723 0.012984 0.000000 
0.030274 -0.033726 0.014943 
-0.045808 0.012981 0.031654 
-0.031865 -0.032135 0.045371 
-0.030569 -0.036431 0.019484 
0.033174 -0.030826 0.027778 
-0.020597 -0.043042 0.026519 
0.022472 0.031653 0.000452 
-0.029356 -0.034578 0.000003 
0.030228 0.033772 0.006219 
0.002588 0.045000 0.029598 
0.004566 -0.041650 0.000223 
-0.042683 -0.014633 0.025787 
0.002720 0.034976 0.000000 
-0.009209 0.002949 0.000000 
0.017373 -0.041314 0.012331 
0.009388 0.043922 0.039204 
0.036892 -0.030108 0.026753 
-0.045000 0.004361 0.038416 
-0.001391 0.038738 0.000000 
-0.020769 0.039892 0.010308 
0.009524 0.043895 0.019997 
-0.020921 -0.039831 0.010513 
-0.047895 -0.000523 0.038104 
-0.035270 -0.026372 0.000000 
0.027947 -0.016748 0.000000 
0.033614 -0.030386 0.031634 
-0.045000 0.002279 0.001160 
-0.034595 0.029405 0.021308 
-0.047755 0.001223 0.032277 
0.045000 -0.000970 0.037596 
0.040504 0.024992 0.046361 
0.021821 -0.042307 0.013957 
-0.016297 -0.019326 0.000000 
-0.035256 -0.016280 0.000000 
-0.033641 0.033359 0.037064 
-0.037968 0.025063 0.035625 
-0.038705 0.023590 0.048088 
-0.021391 -0.039644 0.038310 
0.035795 -0.031205 0.004432 
-0.041981 -0.022365 0.050713 
0.039737 0.021158 0.004669 
0.027275 0.036725 0.049191 
0.045000 -0.003174 0.031360 
0.037123 0.029877 0.010954 
0.026272 -0.039864 0.043381 
-0.023277 0.041434 0.039269 
-0.008268 0.047000 0.001597 
0.028996 -0.031734 0.000000 
0.038301 -0.004208 0.000447 
-0.004966 0.040176 0.000313 
0.004215 0.032739 0.000000 
0.018323 0.040871 0.047669 
-0.045000 0.003399 0.029560 
-0.015562 -0.004062 0.001927 
-0.001560 0.015003 0.000000 
0.023584 0.038708 0.006731 
-0.041780 -0.016439 0.040974 
-0.000493 -0.020406 0.001640 
-0.044138 -0.008446 0.025561 
-0.025952 0.036142 0.000000 
0.001408 -0.047718 0.050061 
0.037476 0.005550 0.000479 
0.045450 -0.013876 0.008723 
-0.038805 -0.028195 0.041324 
0.014593 0.042704 0.031312 
0.002804 0.045000 0.035018 
0.047000 0.006956 0.047543 
-0.047362 0.003190 0.023687 
-0.042780 0.021034 0.037279 
-0.029778 -0.022676 0.000000 
0.027134 0.013102 0.000000 
-0.043656 -0.010722 0.034356 
0.038008 0.024985 0.019358 
-0.021586 0.039566 0.039098 
-0.040804 -0.024393 0.028604 
-0.041055 -0.017891 0.030479 
0.005473 0.044882 0.025914 
-0.020018 -0.043389 0.003882 
0.044026 -0.008895 0.048255 
0.039276 -0.022311 0.049819 
0.034765 0.032235 0.027948 
0.046134 -0.012166 0.025592 
-0.021072 -0.027905 0.000704 
0.045000 0.004609 0.035165 
0.034523 0.029271 0.000000 
-0.017953 -0.044262 0.005701 
0.043224 -0.020293 0.035476 
-0.027217 -0.039392 0.047850 
0.038032 0.024935 0.026182 
-0.000187 0.045000 0.010378 
-0.047932 0.000341 0.008811 
0.040987 -0.018033 0.006049 
-0.010361 0.046855 0.038396 
0.037220 0.026560 0.018479 
0.015349 -0.042325 0.021960 
0.039356 0.018101 0.000000 
-0.043227 0.001109 0.000000 
0.003253 -0.027188 0.001184 
-0.007075 -0.044481 0.033195 
0.020801 -0.027334 0.000000 
-0.017199 -0.041401 0.008823 
0.000028 -0.047994 0.035569 
0.012980 0.045808 0.014700 
-0.047000 0.008503 0.009000 
-0.047000 -0.009604 0.034715 
0.032702 0.009098 0.000739 
-0.045965 0.012587 0.024299 
0.033124 0.033876 0.030827 
0.030309 0.036691 0.044953 
0.001454 -0.047709 0.001557 
-0.047000 -0.009907 0.046827 
-0.046264 0.004301 0.051000 
0.004330 0.022533 0.000000 
0.039870 0.020825 0.025038 
0.032958 0.010704 0.000000 
-0.031329 0.035671 0.050477 
-0.030013 -0.036987 0.032725 
0.024563 0.021489 0.000841 
-0.024284 0.040858 0.012814 
0.001695 -0.045000 0.000844 
-0.018900 -0.041412 0.000000 
-0.039913 -0.026173 0.011610 
-0.047442 -0.002791 0.006976 
0.021615 0.035910 0.000225 
0.008257 0.024557 0.001279 
0.035941 0.028059 0.004579 
-0.035309 0.027985 0.000000 
-0.030848 0.033152 0.049256 
-0.000256 -0.047949 0.015543 
-0.013926 -0.026479 0.000000 
0.010247 0.043751 0.013804 
0.032097 0.013331 0.000674 
-0.042297 0.021838 0.038233 
0.028509 0.035491 0.000741 
-0.010101 -0.003121 0.002297 
0.022461 -0.037219 0.000000 
0.045000 0.000325 0.030255 
-0.046902 -0.010244 0.018014 
0.032566 0.007203 0.000772 
0.044053 -0.018789 0.012384 
0.047125 -0.004374 0.014700 
-0.027769 -0.030373 0.000000 
0.005295 -0.045166 0.000000 
-0.045804 0.012991 0.015126 
0.010210 -0.043758 0.024662 
-0.034816 0.029184 0.036750 
-0.033001 -0.030999 0.009986 
0.026459 0.039771 0.026102 
0.009532 -0.047000 0.028140 
0.009841 0.047000 0.013962 
0.036309 -0.027691 0.031505 
-0.047301 0.003496 0.000563 
-0.035504 0.028496 0.035856 
0.008964 0.010390 0.000000 
-0.015171 0.044957 0.048231 
0.044777 0.015891 0.026217 
-0.043159 0.015975 0.051000 
-0.036659 -0.027341 0.047562 
0.029726 0.034274 0.026435 
0.024709 -0.038146 0.021653 
-0.022204 0.023571 0.000854 
-0.015374 -0.007539 0.001855 
0.038121 -0.028879 0.042265 
0.002785 -0.036872 0.000000 
0.045000 -0.004654 0.001415 
-0.018134 0.024923 0.000981 
0.047763 0.001187 0.034068 
0.014226 0.045309 0.050024 
0.002124 -0.042936 0.000138 
0.037498 -0.026004 0.041983 
-0.018472 -0.044132 0.032804 
0.024987 0.038006 0.017994 
-0.005977 0.044756 0.033769 
0.006748 0.011687 0.002105 
0.009353 -0.000774 0.000000 
0.046273 0.011817 0.044165 
0.041367 -0.017266 0.048220 
-0.020043 0.043374 0.024777 
-0.026852 -0.037074 0.041880 
0.026024 -0.038612 0.051000 
0.034126 0.013883 0.000536 
-0.016941 -0.041529 0.027739 
0.042020 -0.017846 0.051000 
0.040572 -0.019069 0.047634 
0.042197 -0.022005 0.027993 
